-0.18525 -0.212681 -0.364114 -0.3726801872 0.4075390697 -0.8336794972
-0.040232 -0.027804 0.055032 0.5639825463 -0.6482889056 0.5115126371
-0.137453 -0.021556 -0.176168 -0.9736070633 0.07746876031 -0.2146812081
-0.034659 0.392511 0.050348 -0.9184781313 0.3952206969 0.01408915408
-0.182063 -0.097162 0.156036 0.2263495922 -0.2155625969 0.9498940706
-0.156664 -0.401275 -0.353664 -0.4787480235 -0.8739655614 -0.0835730508
0.016327 -0.15461 -0.298827 0.5658672452 0.1294345856 -0.8142732382
0.234627 0.248496 0.468937 0.3132154047 0.6392166018 -0.7023519278
-0.303014 0.05869 -0.144303 -0.1169136092 0.8000600934 0.5884175301
-0.175311 0.076975 0.00729 -0.4449568689 0.8752462864 -0.1896240562
-0.10905 0.225062 0.077833 -0.9754109979 0.1643309593 0.146863088
0.095084 0.435711 -0.016142 0.2144568413 0.8185972571 -0.5328289866
-0.407028 -0.308953 0.052463 -0.06712820381 0.6382864714 0.7668665648
0.230707 0.144418 0.19614 -0.4227595627 -0.364525646 0.82969594
0.265072 0.350117 0.114565 0.3020215631 0.8962108493 0.3249445856
0.115356 0.135862 0.181608 0.8116212487 -0.005526066292 0.5841578245
-0.012352 0.286393 -0.139201 -0.1237408593 0.06320797652 -0.9902994633
0.273191 0.278113 0.035971 0.748524785 0.5156033635 -0.4169697762
-0.236039 0.048706 -0.124586 -0.001087049604 0.9722607136 -0.2338972688
-0.109876 -0.09059 0.115378 0.8356886506 -0.2656718791 0.48066926
-0.362441 0.063628 -0.187092 -0.6793897152 0.6562472582 0.3282822669
-0.106005 0.245167 0.097564 -0.8686145544 0.1166197136 0.4815690219
0.22747 0.121704 0.53532 0.248416841 -0.955735445 0.1576667726
0.061283 0.440255 -0.007749 -0.05468972027 0.989895761 -0.1308253855
-0.136744 -0.342415 -0.423621 0.6615424156 0.7428229451 0.1028385311
0.083138 0.172445 -0.15854 0.1927750111 -0.217744574 -0.9567784667
0.081435 0.046092 -0.062267 0.6176354289 -0.6537975073 -0.4371214509
0.579228 0.033569 -0.108769 -0.7205120325 -0.1457826346 0.6779452562
0.268452 0.234888 -0.008955 0.9515863061 0.2956339717 -0.08416766673
0.32154 0.107012 0.0918 0.7408444881 0.5713407993 -0.3531561196
0.024348 0.343513 0.180767 0.05719295517 0.07102375478 0.9958336353
-0.280556 -0.28303 -0.357331 -0.4554692209 0.7389754057 -0.4964503646
-0.006742 0.169829 0.363886 -0.9967290759 0.07896848023 -0.01717654429
-0.306989 0.03846 -0.132941 -0.5523006916 0.131181404 0.823258996
-0.337307 -0.37548 0.08229 0.8806474209 0.3558930755 0.3127302527
-0.234737 0.006233 0.032487 -0.746943891 0.4495097995 -0.4899140894
0.261576 0.196131 -0.063219 0.8438058496 -0.0453790538 -0.5347265005
-0.199246 -0.046935 -0.014039 -0.09461371601 0.08539499342 -0.9918446541
0.010076 0.116707 0.377333 -0.8164441586 -0.5141768456 -0.2627565265
0.300931 0.258761 0.235577 -0.05551094934 -0.7407304049 0.6695050001
-0.165664 -0.395346 -0.351943 -0.6932589412 -0.6482653618 -0.314871639
0.178632 0.135921 0.487993 0.4135480225 -0.4640917778 -0.7833242416
-0.102386 -0.404538 -0.356051 0.7436365485 0.2105487287 -0.6345659494
-0.137868 -0.340906 -0.416516 0.9691736102 0.2463703007 0.002006010385
-0.052583 0.224784 0.167457 -0.9348394871 0.195083335 0.2966776192
0.100941 0.093956 0.387621 0.4141497314 -0.8791821599 -0.2356238663
0.205829 0.371654 0.131958 0.6654226184 0.720562458 0.1949425489
-0.059646 0.269916 0.154561 -0.2312360108 -0.1255538613 0.9647622108
0.142787 0.238514 -0.156386 -0.325717628 0.3824923933 -0.8646429777
0.257072 0.134482 0.061519 0.3965575993 -0.6329343915 -0.6649332047
0.149904 0.180162 0.433327 0.7520444989 -0.3911259472 -0.5305181146
0.27438 0.228209 -0.178044 0.3088799119 0.8468862176 -0.4328706861
-0.099456 -0.413274 -0.398289 0.05580704659 -0.6919618249 0.7197739482
0.298074 0.217449 0.027367 0.8611146808 -0.1352995187 -0.4900771677
-0.057477 0.280492 -0.10804 -0.4494280815 0.4448066652 -0.7747008204
-0.132218 0.078607 0.075624 -0.2666530609 0.3771918118 0.8869174123
0.4046 0.12822 -0.136367 -0.02301376686 -0.3385860622 0.9406539202
-0.406596 -0.343963 0.081399 -0.5406073928 0.6366919279 0.5498791337
0.130421 0.382611 0.158843 0.164983198 0.5904248357 0.7900500298
-0.264309 -0.323099 -0.359828 -0.4972502589 -0.8491421938 -0.1780441701
0.291957 0.300902 0.119518 0.4584225118 0.698022306 0.5501033068
-0.065106 -0.084804 -0.298716 -0.4543319046 -0.08173125237 -0.887075305
0.111178 0.204459 0.349586 0.1460301429 0.7535651326 -0.6409483552
0.088423 0.259527 0.213961 0.5279772282 -0.5461305976 0.6503702998
0.594018 0.084035 -0.107517 0.7116551995 -0.6730519533 -0.2013654262
0.042923 0.402459 -0.068382 -0.3465672135 0.4503856599 -0.8228268027
0.140603 0.412266 0.123303 0.1373273134 0.8549565673 0.5001904368
0.088634 0.283314 0.212259 0.4688587487 0.3961485922 0.7894540429
0.206701 0.305695 -0.102357 0.4924661517 0.701954186 -0.5145264268
0.1347 0.057037 -0.063084 0.2732910514 -0.7575185895 -0.5928554535
0.109146 0.177421 0.215449 -0.1553617716 -0.1152658761 0.9811098576
0.00907 0.052666 0.098778 -0.3989388943 -0.7838277221 0.4758801162
0.059466 0.142877 0.288998 0.9439297318 -0.32603392 0.05194845423
-0.128712 0.024069 -0.1835 -0.8031532168 0.436278671 -0.405716449
-0.014254 0.123202 0.154878 -0.5716297626 -0.486731112 0.6605545282
-0.132318 -0.009641 -0.111706 -0.9291479588 -0.3386026621 0.148432821
0.078085 0.093002 -0.10875 0.09727000445 -0.4624517858 -0.8812927604
0.017128 0.265926 0.233356 -0.1185493618 0.7126268744 0.6914542913
-0.390911 -0.274005 -0.085349 0.4779013991 0.2890228033 -0.8295034766
0.030464 0.206224 -0.160381 0.05507347733 0.6503822207 -0.7576080561
0.048532 0.410836 0.129205 -0.0811656639 0.6841555834 0.7248057127
0.584436 0.103787 -0.105771 -0.1539267302 0.8407680392 0.5190525055
-0.140652 -0.137492 -0.262209 -0.2687381804 0.7399066687 0.6166991591
0.319005 0.203487 0.165071 0.6187415719 -0.4541358352 0.641029954
-0.031442 0.338797 0.151118 -0.2708217502 0.3618908525 0.8920148015
0.350808 0.204824 -0.157409 0.2021331191 0.8798617125 0.4300996065
0.308503 0.173553 0.18354 0.04469035566 -0.514539659 0.8563012481
0.338435 0.267782 0.064851 -0.3601674736 0.3926539719 -0.8462282419
0.063361 0.184543 -0.162655 -0.05517135561 0.1863912791 -0.980925262
0.25613 0.345046 0.140395 0.5184723139 0.6310579777 0.5770202875
-0.336863 -0.174365 0.084796 -0.5320331454 0.06859205663 0.8439407349
-0.177615 -0.189322 -0.245652 -0.5682254434 0.323610127 0.7565688491
-0.307225 -0.242823 0.07802 0.09472889453 -0.7513103485 0.6531150937
0.254638 0.286054 0.16521 0.01735503785 0.8405315876 0.5414844751
-0.210521 -0.277574 -0.377237 -0.05380433053 0.7108370662 -0.7012957931
0.071402 0.110706 -0.121701 -0.05422038212 -0.4362628162 -0.8981841803
-0.118318 -0.04308 -0.112546 -0.7555447817 -0.5476518273 0.3594851792
-0.074734 -0.247448 -0.308818 0.5034067631 -0.7930080295 -0.343103379
-0.02667 0.39755 0.000407 -0.82741642 0.5108473897 -0.2332745194
-0.268674 -0.29005 -0.370549 -0.5437124968 0.4925328791 -0.6795499325
0.514993 0.037195 -0.207345 0.2218759507 -0.7934319973 -0.5667774677
0.560984 0.086818 -0.150601 0.7807241082 -0.6216871142 0.06304813176
0.134725 0.122423 0.445244 0.7363265753 -0.5231039524 0.4291684628
-0.013708 -0.121183 -0.303522 0.4603382945 0.08837665617 -0.8833335638
0.007163 0.276053 0.213824 -0.1362539083 0.8637721539 0.4851107895
0.28854 0.102921 -0.16714 0.4157756269 -0.8775028586 -0.2389963567
0.075367 0.057118 0.138339 0.003089888021 -0.7507292032 0.6606027484
0.349897 0.203467 0.090031 0.930044651 0.02819381841 -0.3663629889
-0.141279 -0.151204 0.099645 0.7228018641 -0.6512016058 0.2312874496
-0.186273 -0.319287 -0.415755 -0.1298383176 0.7516840696 -0.6466165781
-0.077908 0.34946 0.033799 -0.8785572052 0.3968427777 0.2658066154
-0.351846 -0.307299 0.019023 0.7410531044 0.5672436953 0.3592701852
0.314814 0.170725 0.178116 0.5556707978 -0.4942756891 0.6685218811
-0.119222 0.245587 0.007733 -0.9707450867 0.21106264 0.1144839004
-0.345745 0.060479 -0.166011 -0.5706987381 0.4059796631 0.713781178
0.269809 0.349474 0.070672 0.9601296186 0.234725669 0.1518386155
-0.215578 -0.155283 0.138975 -0.2894167304 -0.4919503629 0.8211106658
-0.183029 0.0575 -0.039304 -0.9673457146 0.2533808351 -0.006367835216
-0.115155 0.197122 0.093003 -0.7694539428 0.1002056226 0.6307926774
0.063878 0.359545 -0.11997 0.01172574051 0.5781575441 -0.8158408403
-0.131499 0.009894 0.121307 0.4093466699 0.7501896024 0.519279182
0.140115 0.431704 0.083151 0.3832444251 0.8574911952 0.3432675004
-0.118385 0.180663 0.041332 -0.680162847 0.5887922049 0.4366948009
-0.312119 0.025057 -0.171078 -0.1052540764 -0.8958340883 -0.4317439795
0.258288 0.199669 0.493907 0.06000447646 -0.9220716357 -0.3823394179
0.307598 0.277914 0.07769 0.3252456188 0.572219789 -0.7528477311
0.312297 0.234532 0.161287 0.6662977338 -0.3836645186 0.6394128799
0.207872 0.256931 -0.131441 0.1959317029 0.9752568603 -0.1023952365
0.027008 0.277105 0.222243 -0.1795264482 0.7833078504 0.5951461792
0.331526 0.10917 0.132479 0.8595848083 -0.1855947822 -0.4760973752
0.023092 -0.122898 -0.207656 0.7474732995 -0.6281511188 0.2161244005
0.222822 0.130977 -0.062286 0.7692537308 -0.5614275336 -0.3050374687
0.208222 0.388424 0.095128 0.3710490465 0.8436163664 0.3881159425
-0.094111 -0.068308 0.099054 0.8719165325 -0.2930123508 0.3923076093
-0.221787 -0.055005 -0.004377 -0.3984963894 0.2478338033 -0.8830509782
-0.130047 -0.340911 -0.376053 0.905598104 0.3965711594 -0.1504098922
-0.291113 -0.25564 -0.016978 0.4854453504 -0.7698620558 -0.4143128991
-0.375946 -0.338444 -0.058501 0.6124039292 -0.4126949906 -0.6742732525
0.005857 0.018189 0.056763 0.1757797748 -0.5410749316 0.8223985434
0.39931 0.12132 -0.267318 -0.06518691778 -0.2360073328 -0.9695624113
0.038144 0.097689 0.402657 -0.5286798477 -0.7444371581 0.4078123868
0.132994 0.079389 -0.088204 0.01109404024 -0.5711649656 -0.8207603693
0.227779 0.132162 -0.096335 0.2511872649 -0.8099363446 0.5300076604
0.090265 0.221501 0.355991 0.2469671816 0.6600268483 -0.709487021
-0.223859 0.014011 -0.144831 0.1562314779 -0.7969452739 -0.5834979415
-0.015397 0.413448 0.054027 -0.5266312957 0.8461466432 0.08182449639
0.024252 -0.071621 -0.275478 0.6267824173 0.1704530269 -0.7603220344
-0.210534 -0.157642 0.139314 -0.344569087 -0.4662264585 0.8148037195
-0.276773 0.055435 -0.136592 0.09802747518 0.9554902911 0.2782606483
0.028759 -0.017611 -0.216904 0.9030485153 0.4226775169 0.07646600157
0.112746 0.22169 0.370104 0.1453399658 0.77890414 -0.6100693941
-0.23171 -0.224167 0.046807 0.7611092329 -0.5664515495 -0.3159831464
-0.341322 -0.274601 0.030418 0.5661713481 -0.7896119952 0.2365647107
-0.058083 -0.231958 -0.311912 0.05053890869 -0.8172185421 -0.5741077065
0.123929 0.123633 0.462531 0.7045689225 -0.6203246117 0.3446445763
0.034699 0.002765 -0.13501 0.9702682495 -0.0999423638 -0.2204338014
0.026303 0.098897 0.360085 -0.6004900932 -0.799040854 -0.03074583039
0.165755 0.421386 -0.006717 0.4378355443 0.8409004211 -0.3180983663
0.279849 0.197669 -0.103983 0.5541405082 0.5562838912 0.6192547679
-0.361636 -0.379309 0.018025 -0.6068926454 -0.6999032497 -0.3765856624
0.180413 0.125522 0.107442 -0.2821032405 -0.6625282168 0.693883419
-0.184801 0.062934 -0.100964 -0.309225589 0.9209762812 -0.2370278537
-0.209882 -0.237827 -0.262057 -0.6194435358 0.111687772 0.7770557404
0.241759 0.246822 -0.129849 0.2759890258 0.9118156433 0.3040103018
-0.236745 -0.334663 -0.384804 -0.4070480168 -0.9133794308 0.007062772289
0.500434 0.150035 -0.132469 -0.4010786712 0.2006046325 0.8938084841
-0.112919 -0.110998 0.094759 0.6874160767 -0.6383886337 0.3462934792
-0.052407 0.341358 -0.066253 -0.6205760241 0.5456901193 -0.5631230474
0.137126 0.165652 0.418178 0.787682116 -0.360610038 -0.4995171726
0.124455 0.275593 -0.155891 0.4290722609 -0.01818644255 -0.9030870199
-0.049948 -0.202323 -0.244971 0.5019914508 -0.5876618028 0.6345536113
0.144448 0.048969 -0.047997 0.3549428284 -0.7310571671 -0.5827272534
0.186031 0.07681 -0.057829 0.6069539785 -0.6834865212 -0.4055281281
-0.041999 0.108741 -0.158677 -0.0168115329 0.4802888334 -0.8769493699
-0.252397 -0.030738 0.043548 -0.9471716881 0.3057523966 -0.09685751051
0.125394 0.350633 -0.119947 0.0117320139 0.4641264379 -0.8856912255
0.040812 0.02052 0.07066 0.1876989007 -0.7915404439 0.5815779567
0.546066 0.004513 -0.175508 -0.4109958112 -0.7883156538 -0.4578655362
0.165011 0.2766 -0.139059 0.5534060597 -0.1354007125 -0.8218322992
0.000699 -0.179671 -0.260466 0.2592732906 -0.6594116092 0.7056583762
0.11499 0.246459 -0.157663 0.05352956802 -0.247570917 -0.9673898816
0.008575 0.357163 0.169916 -0.4245742559 0.5183395743 0.7423347235
0.032705 0.00922 -0.146517 0.9647268653 -0.02205329947 -0.262327224
-0.194153 -0.194781 0.103638 0.8436549306 -0.5143046379 0.15406847
0.486883 0.105309 -0.221765 0.3371095359 0.09660230577 -0.9364961982
-0.337651 -0.19815 0.0833 -0.4743049145 -0.01895778812 0.8801563978
-0.095885 0.130072 -0.137569 -0.3529316783 0.5033420324 -0.7887242436
0.261963 0.235411 -0.052882 0.9171479344 0.3984074593 -0.01054474432
-0.200599 -0.117226 0.158255 -0.01408899762 -0.4368519783 0.8994230628
0.154703 0.38537 0.146476 0.4247211814 0.780600667 0.4585570991
-0.132495 0.101503 0.063842 -0.549388051 0.07676647604 0.8320333958
0.274531 0.177517 -0.095833 0.2591267824 -0.6785091758 0.6873708367
-0.327784 0.035404 -0.167308 -0.644518733 -0.7613463402 -0.07033878565
0.295635 0.187302 0.025101 0.7644709349 -0.3330293596 -0.551974237
-0.136067 -0.349584 -0.401594 0.7511376143 0.4606731832 -0.4728345275
0.22194 0.216614 0.513375 -0.05411241949 0.2562337518 0.9650989771
0.071516 0.187504 0.283519 0.8060100079 0.4137780964 0.4232439995
0.113505 0.238309 0.214203 0.2990348637 0.4983193278 0.8137910962
-0.004368 0.142917 0.374922 -0.91234231 -0.2718656361 0.3061381578
-0.086304 -0.169078 -0.345374 0.3987721801 -0.02976130135 -0.9165670276
0.101581 0.041383 0.005437 0.9215853214 -0.3746113181 -0.1017198265
0.043537 0.019097 -0.088359 0.9012649655 -0.3752763271 -0.2165389061
0.042465 -0.011446 -0.009816 0.7030006647 -0.710929513 -0.01921929233
-0.12714 -0.152285 -0.2371 -0.1174016744 0.7565734386 0.6432832479
0.203783 0.119272 -0.157613 -0.3531740904 -0.8992384672 -0.2581438124
-0.102172 0.234178 -0.040817 -0.9199835062 0.2769922018 -0.277318716
0.323539 0.096383 -0.149394 -0.5828491449 -0.688421607 0.4316972494
0.279759 0.21121 0.488547 -0.1000885591 0.3939158618 -0.9136807919
0.36006 0.030078 0.189854 -0.2036040276 0.4024997354 0.8924905658
-0.303862 -0.297097 -0.343391 -0.8443439007 0.2427243888 -0.4776695967
0.165933 0.427221 0.016166 0.5057757497 0.8397524357 -0.1975012124
-0.312767 -0.268918 -0.006221 0.1093856096 -0.9812693596 0.1585717499
-0.100102 -0.009539 -0.2576 -0.6366656423 0.2035550177 -0.7437890768
0.490251 0.16574 -0.196423 0.1198503003 0.8653897047 -0.4865557551
0.208172 0.325288 -0.075485 0.8533560634 0.3091383576 -0.4197818339
-0.046883 0.356773 0.111858 -0.6234666705 0.5106632113 0.5920408964
-0.04409 0.268735 -0.127013 -0.6824964881 0.1375754923 -0.7178242207
0.118626 0.238488 0.414678 0.3244011402 0.9420076013 -0.08593995124
-0.224713 -0.235542 -0.282619 -0.8240440488 0.04736458883 0.5645423532
0.156487 0.314723 -0.134057 0.3011353016 0.4272797704 -0.8524960279
-0.077732 0.038268 -0.236419 -0.517350018 0.6949771047 -0.4993553758
0.183647 0.171847 -0.20172 -0.08216036856 -0.2110875845 -0.9740080833
0.387104 0.183387 -0.126075 -0.1009744033 0.7111790776 0.6957216263
-0.226775 0.001725 0.013686 -0.5824359655 0.5878830552 -0.5613928437
-0.092696 0.169967 0.099705 -0.6824985743 -0.6601601243 0.313662678
0.133604 0.324924 0.180744 0.3000589609 0.1491176933 0.9421935081
0.448974 0.140335 -0.246081 0.8759979606 0.08091089129 -0.475479722
-0.039447 0.304733 -0.113361 -0.8234252334 0.4412252605 -0.3567787409
-0.174901 -0.356186 -0.318472 0.01395936217 0.04816274345 0.998742044
-0.223006 -0.247595 -0.274899 -0.5449854136 0.3535597324 0.7602541447
0.376004 0.114915 -0.144475 0.0415433608 -0.4310005605 0.9013949037
-0.389288 -0.263181 0.030566 -0.4378554821 -0.5279984474 0.7276677489
-0.115957 -0.117783 -0.199852 -0.4272992015 -0.8688271046 0.2501097023
0.046366 0.424929 0.107301 -0.1013576984 0.8791781068 0.465588361
-0.313601 -0.126386 0.036717 -0.08490998298 0.9761440158 0.1998327821
0.111574 0.052342 0.051207 0.4086032212 -0.8876658082 0.2123509794
0.203822 0.126006 0.012436 0.8323754668 0.01226449665 0.5540765524
-0.157664 -0.288638 -0.278722 -0.06318286061 -0.8320612907 0.5510733128
0.025209 0.351211 -0.121756 -0.3337570131 0.6290206313 -0.702096343
0.259905 0.299379 -0.009469 0.9097414017 0.3080095649 -0.2783897519
0.174541 0.19082 0.165778 0.2358440012 -0.2866894007 0.9285401702
0.397953 0.306888 0.088466 -0.2934218645 0.9298785329 0.2218774706
-0.09301 -0.254576 -0.291983 0.4693816602 -0.6699726582 0.5751674175
-0.34523 -0.308247 -0.027872 0.8821492195 0.07687704265 -0.4646532834
-0.266103 -0.229226 -0.026425 0.5655434132 -0.5245521665 -0.6364005804
-0.110496 -0.257603 -0.253226 0.3071785569 -0.8488224745 0.4302809834
0.332716 0.145575 0.087893 0.7927289605 -0.4566464424 -0.4038003385
-0.119266 -0.409844 -0.33786 0.09319414943 -0.317230165 0.9437583685
-0.03904 0.050627 -0.214611 -0.04147497565 0.9112402797 -0.4097816348
0.002062 0.187995 0.433251 -0.878103435 0.2776574194 0.3896673322
0.229001 0.326661 -0.025665 0.7780967951 0.5200950503 -0.3522306979
0.186542 0.366316 0.153186 0.1699525714 0.57845366 0.7978141904
-0.098462 -0.093408 0.068531 0.9493965507 -0.3127585649 0.0287814457
0.212698 0.122237 0.537373 -0.1863581091 -0.7872550488 0.587792635
0.332021 0.188851 0.072347 0.8760159016 -0.2878436744 -0.3869653642
0.216417 0.222344 0.510365 0.01526187453 0.6124278903 0.7903790474
0.109407 0.147616 0.492686 -0.7917202115 -0.4375474453 0.4262994528
0.440962 0.19468 -0.204259 0.1878838241 0.9399166703 -0.2850549221
-0.418761 -0.257505 -0.091401 0.2735638022 0.8009532094 -0.5325755477
-0.048901 0.192958 0.184112 -0.9137672782 -0.191056937 -0.3585059345
0.022099 -0.059417 -0.150232 0.8095687032 -0.2644217014 0.5240991116
-0.386134 -0.354104 0.09355 0.9521891475 0.168893382 0.2545796037
0.106332 0.428851 -0.03391 0.1423211694 0.8702133298 -0.4716707468
0.383342 0.247315 0.1198 0.1239597276 -0.2681218088 0.9553767443
0.316173 0.115423 0.079104 0.8433471322 -0.4434717894 -0.3034768999
0.221082 0.129265 0.542957 0.1312175691 -0.3137336671 0.9404005408
-0.205545 -0.141683 0.150546 -0.3137043417 -0.3778089583 0.8711198568
0.286251 0.29715 0.255745 -0.7003569603 0.7096270323 0.07700338215
-0.118986 0.246538 0.001703 -0.9944716096 0.07976455241 -0.0682932958
0.16071 0.141113 0.143559 0.583509326 -0.5273019075 0.6176322699
-0.125792 -0.182288 -0.219403 -0.6147817373 0.1802820265 0.7678163052
-0.222131 -0.307837 -0.395217 -0.2729755938 0.4687874913 -0.8400729299
0.022103 -0.019147 -0.244948 0.8249000311 0.352165252 -0.4421761334
-0.132568 -0.076561 -0.202086 -0.8625461459 -0.4969852269 0.09497263283
-0.292727 -0.183737 -0.042731 0.1971127987 0.4699213803 -0.8604186773
0.207994 0.406451 0.057972 0.6433858275 0.7630264163 0.06201220304
0.098136 0.102717 0.177591 0.3758198619 -0.5207002163 0.7665706873
0.031718 0.009407 -0.112827 0.9877635241 -0.1559313983 -0.002958435565
-0.007362 0.156488 0.351177 -0.8859180808 -0.1052976325 0.4517318308
0.21587 0.183535 0.493593 0.6870309114 -0.3239571154 -0.6504154801
-0.297575 -0.132874 0.062843 -0.4675710499 0.8004619479 0.3750173151
0.32881 0.0348 0.116367 -0.2582535148 -0.3679838479 -0.8932486176
0.171648 0.350692 -0.100177 0.4833895564 0.5557333827 -0.6763836741
0.033951 0.43876 0.045276 -0.249547407 0.9682919383 -0.01169325411
0.245442 0.089648 0.164165 -0.3245649934 -0.3930319846 0.8603391051
0.213845 0.10759 -0.057916 0.7682538033 -0.4457464516 -0.4594520628
-0.241429 -0.350722 -0.333333 -0.5626873374 -0.6837602258 -0.4646017253
-0.236691 -0.347721 -0.344761 -0.5084519386 -0.7681062222 -0.3892163932
-0.410577 -0.323003 0.067724 -0.4624435306 0.4810110629 0.7448318601
0.035429 -0.052065 -0.23952 0.9916232824 0.08996158093 -0.09268342704
0.126981 0.1372 0.503318 -0.6703576446 -0.6073254943 0.4263525307
0.134569 0.419531 -0.037537 0.2993613482 0.7825080752 -0.5459523201
0.058482 0.156043 -0.141512 -0.06129861623 -0.407407701 -0.9111868739
0.154666 0.176626 0.528468 -0.1404140741 -0.1781197637 0.9739390612
0.362604 0.046858 0.147792 0.8409523964 0.498942256 0.209417209
0.208693 0.233032 0.49673 0.5054097772 0.8269460201 0.2464168072
0.145629 0.092793 0.107341 0.948677361 -0.2856249213 0.1357557476
0.576653 0.109728 -0.116643 0.1234239116 0.9198932648 0.3722403049
-0.133319 -0.152469 -0.349416 0.0114319576 0.5414912701 -0.840628624
0.047756 0.219064 -0.163218 0.02388675138 0.08085023612 -0.9964399934
0.416459 0.199581 -0.159905 0.02655133978 0.9833033085 0.1800266206
-0.173126 -0.045792 -0.021726 -0.2721809149 -0.2532574534 -0.9283201694
0.535088 0.022914 -0.191259 -0.04852982983 -0.6621190906 -0.747825563
-0.210663 -0.202979 0.058784 0.547627449 -0.6768696904 -0.4918858111
0.270384 0.113468 0.073962 0.1537839025 -0.419950068 -0.894423008
-0.050677 -0.212169 -0.327654 0.09128078073 -0.5627213717 -0.8215914965
0.162865 0.360681 0.16234 0.4522906244 0.1201667711 0.8837382793
0.057311 0.128438 0.308922 0.7559368014 -0.4451554418 -0.4799960554
0.375307 0.267458 0.054385 -0.2046739161 0.355138272 -0.9121323228
-0.38232 -0.373953 0.055987 -0.5207861662 -0.7661504149 0.3765571415
-0.253425 -0.120266 0.121036 -0.9343861341 -0.1426562369 0.3264534473
0.022022 -0.164934 -0.274486 0.9124428034 -0.3805628121 0.1504000127
0.01169 0.104774 0.160327 -0.582439363 -0.5505217314 0.5980719924
-0.400365 -0.279377 0.022248 -0.2502578497 0.6136676073 0.7488545179
0.272519 0.335179 0.057638 0.7579750419 0.5221334696 -0.390961051
0.088143 0.387201 -0.086192 -0.2961796522 0.8496464491 -0.4363237917
0.00825 -0.049522 -0.275429 0.5139638186 0.1993110925 -0.8343358636
0.149329 0.126098 0.507774 -0.4038375616 -0.8687720299 0.286618799
0.266484 0.251399 -0.004551 0.8746478558 0.3309538364 -0.3542043269
0.029192 0.34871 0.179431 0.05812384188 0.2480777204 0.9669948816
0.013884 -0.033324 -0.08239 0.5742067099 -0.8069239259 -0.1384214163
0.180861 0.372647 -0.059791 0.7669798732 0.4402534664 -0.4668177664
0.525435 0.171919 -0.167543 -0.04818691313 0.9971401691 0.05821904168
-0.235717 -0.015522 0.107769 -0.6596000195 0.545755446 0.5167965889
-0.103806 -0.127297 -0.318422 0.1746647954 0.90239048 -0.393933475
0.332296 0.18961 -0.145589 -0.1996029764 0.690707624 0.6950407028
0.423496 0.069017 -0.1686 -0.02976614051 0.2115081698 0.9769228697
0.23468 0.239756 0.48862 -0.0009049898363 -0.3577585518 0.9338136315
0.248273 0.148037 0.19752 0.2628504634 -0.2336149514 0.9361269474
-0.421248 -0.335333 0.004676 -0.4515110254 -0.8473370671 -0.2795666754
-0.115022 -0.27187 -0.304775 0.5477812886 -0.8033565283 0.2335679531
-0.137939 0.133566 -0.088578 -0.7291409373 0.6287835836 -0.2701570392
0.030089 -0.04904 -0.15824 0.8921849728 -0.04762169346 0.4491526186
-0.117236 0.010959 -0.228779 -0.6735496521 0.6130497456 -0.412917614
-0.29509 -0.256527 0.026844 0.3792310655 -0.9149015546 -0.1383432597
0.304035 0.291878 0.292357 0.04748934135 -0.9521766901 0.3018347323
-0.092627 -0.416946 -0.354778 0.7963301539 0.5642462373 -0.2179090381
-0.027227 -0.154934 -0.198186 -0.1697811484 -0.7748568058 0.6089098454
-0.032952 0.341445 0.148915 -0.4374506474 0.5520643592 0.7098321915
-0.306022 -0.267066 -0.005211 0.3587763608 -0.9012197852 -0.2430686206
0.115982 0.304219 -0.154364 0.2270796001 0.3635346591 -0.9034807086
0.060539 0.097378 0.422354 -0.2220652848 -0.8428764939 0.4901491702
0.152089 0.243008 0.454879 -0.1815686077 0.8797015548 -0.4394975603
-0.321447 -0.235645 -0.053841 0.3198106587 -0.2626558542 -0.9103477597
-0.156922 -0.170931 -0.235884 -0.5619673133 0.2259820551 0.7956914306
0.227238 0.238805 -0.181109 -0.01917844638 0.7539380789 -0.656665504
0.188941 0.185459 0.465831 0.4635658264 -0.6371306777 -0.6157687306
-0.006741 0.127847 0.328648 -0.7342062593 -0.615991056 0.2854755223
-0.145129 -0.203234 -0.367289 0.1281267852 0.2063978314 -0.9700430632
-0.161952 -0.14172 -0.312646 -0.4320224822 0.8951853514 -0.109543249
-0.286417 -0.182926 0.107972 -0.3477565348 -0.111980401 0.9308736324
0.558548 0.106274 -0.127367 -0.6885181665 0.02617035247 0.7247467637
0.303197 0.03483 0.129157 -0.2901170552 -0.9539521933 -0.07620611042
-0.205159 0.055821 -0.094813 -0.3669506609 0.9052016735 0.2143761814
0.126728 0.234205 -0.152327 0.1706155241 0.03934202343 -0.9845519662
-0.412623 -0.259052 0.011775 -0.9078645706 -0.1299860626 0.3986046016
-0.347844 -0.293236 -0.014964 0.9640375376 0.225333795 -0.1409124881
0.03601 0.28262 0.216311 -0.03918044642 0.7609192729 0.64766258
-0.01352 -0.06444 -0.045007 0.07109960914 -0.9827255011 -0.1708666682
-0.130013 -0.138827 -0.340077 -0.005837896839 0.6548776627 -0.7557123899
0.333967 0.204507 0.142977 0.8252391219 -0.4302646518 0.3658589721
-0.088776 -0.005077 -0.263746 -0.4887073338 0.2707836032 -0.8293620348
-0.108382 -0.427444 -0.349448 -0.3440442681 -0.8531160355 0.3922074735
0.327263 0.283154 0.106606 0.01789478771 0.8628665209 0.5051150322
-0.223835 -0.215831 -0.299433 -0.8028906584 0.3433193862 0.4873380363
-0.195397 -0.361182 -0.377274 -0.4972269237 -0.8224848509 -0.2761958241
0.066497 0.166594 0.482018 -0.2612355947 0.04212241992 0.9643555284
0.213312 0.099875 0.122785 -0.7959634662 -0.558480382 0.2335417867
-0.431101 -0.262484 -0.014353 -0.6273012161 0.6394067407 0.4445809722
0.23041 0.255348 0.191015 0.06114087254 0.4745234251 0.8781169057
0.13704 0.170967 0.412811 0.8116368651 -0.4521708786 -0.3698474169
0.228783 0.213871 -0.202707 0.2355232239 0.3889700472 -0.890635252
-0.109587 0.224327 -0.025031 -0.9416764379 0.1634411514 -0.2941638827
0.028052 0.108546 0.299784 0.3287080824 -0.9159827828 0.2300576717
-0.108323 -0.374131 -0.45133 0.9893522859 0.1453489959 0.007466179784
0.234239 0.151794 0.198974 -0.1575310379 -0.241196081 0.95760566
-0.247424 0.034574 -0.155884 0.4715321958 0.3950195611 -0.7884268165
-0.217053 -0.255626 -0.363145 -0.2862829268 0.4307271242 -0.8558715582
-0.163465 0.026893 -0.119107 0.1316743344 -0.2540080845 -0.9581970572
-0.080712 0.305979 -0.050892 -0.4364151657 0.69039011 -0.5769777894
-0.113064 -0.012786 -0.247293 -0.6303421855 0.04975584894 -0.7747212648
0.059034 0.146647 0.475123 -0.5447194576 -0.4086405039 0.7323207259
-0.160751 0.076681 0.055089 -0.6496329308 0.5896286368 0.4799115062
-0.096312 0.119806 -0.142543 -0.4002570212 0.2240668684 -0.8885878921
0.021843 -0.135687 -0.234829 0.7882878184 -0.473357141 0.3931098878
-0.039043 -0.06498 -0.094758 -0.1154012457 -0.8998755813 0.4206024706
-0.349922 0.057879 -0.168329 -0.6409867406 0.2576432824 0.7230186462
-0.260334 0.00042 -0.110824 -0.2001086324 -0.6938660145 0.6917417049
0.294131 0.130325 0.190812 0.3480961621 -0.5640634298 0.7487732768
-0.248321 -0.236787 0.026964 0.7088971138 -0.6928941607 0.1317668706
0.249933 0.356305 0.040323 0.7065699697 0.4564706981 -0.5407342315
-0.391877 -0.238974 -0.07033 0.05198496953 0.3905552626 -0.9191105366
0.4903 0.157789 -0.140229 -0.05421088636 0.7197912335 0.6920706034
0.501619 0.056985 -0.219919 -0.1648380011 -0.384658426 -0.9082214832
-0.231729 -0.218832 0.103674 0.02097314596 -0.9989058971 0.04179830849
0.091512 0.333404 0.185087 -0.0439825356 0.2744536996 0.9605938792
-0.444052 -0.302899 -0.016728 -0.8033440709 0.4223023951 0.4198796749
-0.039049 0.081546 0.102921 -0.4706012905 -0.3383308947 0.8149027824
-0.19955 -0.002736 -0.021443 -0.8448573351 -0.2436050326 -0.4763117135
0.083991 0.12915 0.190984 0.03077475913 -0.3120190203 0.9495772123
0.212368 0.343834 -0.047756 0.7287144065 0.2625634968 -0.6324837804
-0.122822 -0.126123 0.100952 0.7701337337 -0.505874455 0.3885680139
0.430869 0.060554 -0.184631 0.2980086803 -0.9247226715 -0.2368094772
0.463803 0.101481 -0.221915 0.5241723657 -0.2054584473 -0.826456368
-0.115145 0.261884 0.035165 -0.9169458747 0.397382468 0.03601951152
-0.064541 0.342372 -0.044496 -0.6551747322 0.6378706694 -0.4048048556
-0.233984 -0.095732 0.003804 -0.4737848341 -0.1262347102 -0.8715462089
0.331897 0.239616 0.236337 0.9232207537 -0.2152273804 -0.3183403909
0.247125 0.163604 -0.085446 0.7856836319 -0.3820899427 0.4865269363
-0.299216 -0.138533 -0.010749 0.09184923768 0.7715770006 -0.6294701695
0.069077 0.413935 -0.058612 -0.3348816335 0.6312573552 -0.6995488405
0.27518 0.136907 0.190206 -0.4000805318 -0.311227411 0.8620168567
0.435315 0.167249 -0.253426 0.5382379889 0.2435619384 -0.8068315983
-0.121116 -0.380058 -0.440297 0.2512688935 -0.7619124055 0.5969533324
0.291867 0.139208 0.054813 -0.6795722842 -0.4467435479 -0.5818948746
0.208247 0.158187 0.496469 0.2942191064 -0.580996573 -0.7588663697
0.572783 0.099504 -0.11222 -0.7117719054 0.02251068503 0.702049911
-0.194562 -0.021968 0.144599 -0.2337384075 0.5340355635 0.8125098944
0.250523 0.360402 0.095072 0.6933922172 0.7086806297 -0.1303037703
0.036258 0.008424 -0.099359 0.9081414342 -0.2683505714 -0.3213519454
-0.055855 0.314356 -0.085832 -0.742700696 0.4179727435 -0.5231583118
0.432814 0.198228 -0.187688 0.2289320081 0.9597297311 -0.1628158987
-0.330437 -0.331022 -0.005937 0.7585520744 -0.02762225829 -0.6510267854
-0.064671 -0.184779 -0.22936 -0.03063201904 -0.5988543034 0.8002719879
-0.140282 0.190106 -0.020695 -0.9426872134 0.2925816178 -0.1604266167
0.276759 0.274956 0.176358 0.4731258452 0.8646500707 -0.1689146608
0.336791 0.083103 0.096735 0.639726162 0.07397805154 -0.7650343776
-0.054266 0.323562 0.140713 -0.7366534472 0.4615862072 0.4942468405
0.040425 0.052515 -0.107948 0.8010964394 -0.05198055506 -0.5962739587
0.251473 0.127253 -0.216477 -0.6977028251 -0.5620927811 -0.4441423416
0.179106 0.193006 0.454551 0.6360405087 -0.1636595428 -0.75410074
0.192974 0.258955 0.183121 0.1527163535 0.5812584162 0.799259901
0.32699 0.104249 -0.233488 -0.3930372894 -0.4980733395 -0.7729453444
-0.073494 0.345619 -0.010622 -0.6322401762 0.7695146203 -0.0901093483
-0.23926 -0.004059 0.034086 -0.9154592156 0.2182547003 -0.3380818069
0.05199 0.326683 0.195281 0.1297003329 0.5508992076 0.8244318366
-0.120146 -0.109882 -0.193704 -0.8053286672 -0.2923707962 0.5157179832
0.189875 0.407816 0.004066 0.28204602 0.9540362954 -0.1013159603
0.302306 0.102948 -0.182984 -0.6964950562 -0.7007128 -0.1545838714
0.310139 0.211999 -0.183651 0.8015221953 0.3805353343 -0.4612537324
-0.127365 -0.197165 -0.36313 0.07277029753 0.06428208202 -0.9952750206
0.063423 0.22463 0.459493 -0.06158895418 0.5315282941 0.8447985053
0.308377 0.152305 0.198385 0.7168278694 0.3187309504 0.6201357245
0.274599 0.14425 -0.107826 0.3910246193 -0.3222492635 0.8621225357
0.10855 0.052068 0.114874 0.4013738632 -0.8428551555 0.358460933
0.028327 -0.019331 -0.22771 0.8844477534 0.4227708876 -0.1975270212
0.0882 0.04216 0.11018 0.2541633844 -0.8908216953 0.3766134977
-0.030695 -0.215859 -0.283467 0.386253804 -0.9172158241 -0.09758631885
0.290121 0.10497 0.180535 0.6345465183 0.5837994814 0.5064867735
0.040109 0.188649 0.473259 -0.2968932092 0.3674078286 0.8814001083
0.047212 0.188662 -0.162608 -0.1206554174 -0.5345548391 -0.8364768028
0.01549 0.2184 0.371667 -0.04844110087 0.8142595291 -0.5784763694
-0.203796 -0.20456 0.127931 0.5052532554 -0.7447622418 0.4359453321
0.119203 0.144744 0.402526 0.8213474154 -0.2590561509 -0.5082108378
-0.109794 -0.371223 -0.383064 0.5387526155 0.07253023237 0.8393360376
-0.018931 -0.114332 -0.154269 0.3396285176 -0.6270514727 0.7010414004
-0.043602 0.076331 -0.180376 0.1276565939 0.7840487957 -0.6074301004
-0.355599 -0.195643 0.074601 -0.4908980727 0.04350692406 0.8701300025
0.13531 0.117946 0.440426 0.6295876503 -0.4828748405 0.6086471677
0.038189 0.093966 0.364347 -0.3067638576 -0.8886640072 -0.3408404291
-0.138595 -0.268464 -0.355143 0.598798275 -0.5301825404 -0.6002892256
0.59133 0.08637 -0.120244 0.634973228 -0.7084626555 -0.3080417216
0.028333 0.287359 -0.147747 -0.1047137678 0.09036512673 -0.9903883338
-0.086696 0.033595 0.098953 0.3062532842 0.2245216221 0.9250940681
0.012725 0.117065 0.233725 -0.3604046404 -0.834045589 -0.4177039266
-0.204732 -0.219695 -0.261042 -0.7723462582 0.1380588412 0.6200168729
-0.42921 -0.290479 0.007298 -0.7641336322 0.2256550491 0.6043008566
0.337313 0.131669 0.141022 0.9914829135 -0.005453278776 0.130122453
0.164884 0.290032 -0.135326 0.4873919487 0.3900324404 -0.7812322378
0.190244 0.189764 0.463397 0.4888409972 -0.3863613605 -0.782150507
-0.202923 -0.33003 -0.417883 -0.4982872307 0.4625249505 -0.733335197
-0.200312 -0.201241 0.129156 0.6112550497 -0.6397557259 0.4659183621
0.052048 0.078808 -0.114695 0.5690580606 -0.7670768499 -0.2962532938
0.160342 0.418585 -0.019313 0.3775717616 0.8120604157 -0.4449690282
-0.056813 0.172788 0.148817 -0.5481740236 -0.05845794827 0.8343187571
0.122884 0.127151 0.468669 0.2861483097 -0.7966570854 0.5324064493
0.372303 0.25514 0.086824 0.3348708451 -0.784196496 -0.5223958492
0.15371 0.138786 0.144878 -0.2682279944 -0.4498439729 0.8518767953
0.102289 0.396091 0.151405 -0.1570305228 0.8074423075 0.5686636567
-0.083237 0.16505 -0.123232 -0.2829796076 0.6867013574 -0.6695996523
0.042867 -0.010206 -0.001125 0.4266532362 -0.8634419441 0.2691377103
0.109427 0.036391 -0.024008 -0.2775650918 -0.9603120685 0.02753827162
-0.364419 0.064596 -0.196564 -0.5790387392 0.8150162101 0.0215073023
0.196562 0.414918 0.045507 0.5592621565 0.8284679651 -0.02943904512
0.138405 0.263165 -0.151177 0.5965670347 -0.2350818068 -0.7673618793
-0.001149 0.132312 0.388432 -0.9004436731 -0.3962315321 0.1794485748
0.267118 0.295289 0.147956 0.6593244076 0.5576665998 0.504281044
-0.138243 -0.023073 -0.194721 -0.9341151118 0.3155001998 0.1669994146
0.146215 0.307713 0.189579 -0.1722669899 0.3918580711 0.9037539959
-0.206611 -0.326549 -0.299946 0.2186540067 -0.522220552 0.8243034482
-0.161636 -0.325405 -0.431687 0.1472804546 0.7334885597 -0.6635532975
0.318219 0.171091 0.048605 0.7182274461 -0.1084418744 -0.6873061657
0.356477 0.069736 -0.175976 -0.2809696198 -0.9596432447 -0.01186814904
0.089227 0.108958 0.341133 0.586623013 -0.5180665851 -0.6224792004
0.01436 0.187877 0.460261 -0.8363217115 0.1881444603 0.5149443746
-0.415204 -0.359127 0.082781 -0.8681086302 0.2358764559 0.4367490709
0.296378 0.253688 0.185244 0.9040441513 0.3199992776 -0.2833807766
0.031789 0.105606 0.342593 -0.3934097588 -0.8665152788 -0.3072130978
0.31487 0.29527 0.230546 0.4273432493 0.7305085063 -0.5326679349
0.581108 0.093109 -0.101988 -0.827632308 0.1393454224 0.5436980724
-0.141984 0.165217 0.01476 -0.8739444017 0.4034800828 0.2709704041
0.111515 0.037364 -0.012162 -0.3667858243 -0.8889223933 0.2743811011
0.401755 0.151578 -0.121418 -0.216113165 -0.7951501608 0.5665963292
-0.11388 0.209016 -0.014251 -0.9165485501 0.3476733863 -0.1976407617
0.466376 0.066611 -0.180247 -0.5374985933 -0.7294535637 0.4230752289
0.124502 0.398242 0.141208 0.3170754611 0.931931138 0.1759757847
-0.00521 0.164034 0.42967 -0.875277102 -0.1099125221 0.4709663093
0.287262 0.295043 0.267623 -0.8023574352 0.483802706 0.3495105207
-0.106895 0.287979 0.051002 -0.86471349 0.4860576093 -0.1265645325
0.562178 0.042779 -0.14831 -0.4205957651 -0.851859808 -0.3121444583
0.229825 0.237864 0.488123 0.0757201463 -0.4183599651 0.9051195383
0.032057 0.109495 0.294582 0.6743403673 -0.6893238425 0.2647595108
0.193831 0.26367 -0.121355 0.2593765259 0.7046602964 -0.6604376435
-0.123156 -0.227449 -0.354335 0.4212107658 -0.3062871397 -0.8536800742
-0.187507 -0.297303 -0.39435 0.1280174702 0.6629812717 -0.7376092076
-0.101824 0.206959 0.106163 -0.8362760544 -0.2751560211 0.4742694497
0.000906 0.41577 0.079077 -0.8164643049 0.5735704899 0.06635452807
0.239852 0.072042 0.14916 -0.7799473405 -0.2770965099 0.5611593127
-0.113395 0.168787 -0.089142 -0.7394313216 0.3184041679 -0.5931779742
-0.114857 -0.030105 -0.090131 -0.7412241697 -0.5042248964 0.4431071281
-0.072426 -0.190355 -0.345016 0.07895191014 -0.03108585812 -0.996393621
0.085412 0.035207 0.05658 0.5304620862 -0.4969787002 0.6867474914
0.210946 0.109607 0.124168 -0.9111058116 -0.2924241424 0.2904725075
0.547036 0.112502 -0.128189 -0.2783811688 -0.3163699806 0.9068704247
-0.179533 -0.272806 -0.260397 -0.2499188185 -0.620945096 0.7429452538
0.208081 0.090345 -0.041066 0.7631767988 -0.6113810539 -0.209222883
0.223483 0.118508 0.069309 -0.3135817349 -0.5790928602 -0.752540946
0.241718 0.126357 -0.109234 0.1470893025 -0.8628742099 0.4835419655
0.064825 0.152666 0.3004 0.864402473 -0.3610127568 -0.3499685526
0.147175 0.042397 0.012897 0.3067417145 -0.8812258244 0.3596535623
0.476403 0.113457 -0.220866 -0.01056634169 0.2395173013 -0.9708345532
-0.132287 -0.049563 -0.03875 -0.3543590605 -0.6533840299 -0.6689686179
0.031138 0.002485 -0.150024 0.9291836619 -0.1465500444 -0.3393242061
0.05845 0.170162 0.4815 0.01893606037 -0.01061107032 0.9997643828
0.236759 0.327604 0.167382 0.4756626785 0.2617185414 0.8397907019
0.234655 0.146018 -0.034647 0.5010275245 -0.8624379635 -0.07191753387
0.119456 0.354967 -0.116327 -0.395640254 0.5026615262 -0.768635273
0.268816 0.10083 -0.176519 -0.1882697493 -0.9727069736 -0.1356305182
0.023188 0.225026 0.311824 0.4418234229 0.8921390772 0.0942331329
-0.124529 -0.102642 0.126555 0.6973509192 -0.416548878 0.5832569599
-0.092907 -0.064576 0.098512 0.9316997528 -0.1171507984 0.343818754
0.258346 0.181345 0.002795 -0.3718031049 -0.8527402282 0.3668738902
-0.176646 0.067347 -0.034778 -0.9393896461 0.3229838014 -0.1150156483
-0.211949 -0.35755 -0.358666 -0.5053950548 -0.8034172654 -0.3147958815
0.21436 0.250703 -0.16806 -0.1275112927 0.9280531406 -0.3499402702
0.146041 0.090237 0.099659 0.9492505193 -0.2827923 0.1376660019
-0.080398 0.210541 -0.093822 -0.5741434097 0.6699327826 -0.4706902802
-0.217842 0.050273 -0.094843 -0.3531894982 0.8737885952 0.3342911899
0.441165 0.196434 -0.196666 0.2143539935 0.9728285074 -0.08750505745
0.534142 0.076898 -0.205335 0.2942360938 -0.2261006385 -0.9286031127
-0.075561 0.020588 0.097812 0.3803746402 0.1218059212 0.9167761207
-0.006664 -0.169022 -0.312591 0.2788153887 0.05827675387 -0.9585748911
-0.245544 -0.339365 -0.305463 -0.09726401418 -0.2461598963 0.9643365741
-0.242029 -0.014352 0.025935 -0.7009348273 0.5125117302 -0.4960060716
0.571025 0.063583 -0.168115 0.7641626 0.02871943824 -0.6443839073
-0.032444 0.394501 0.07099 -0.9272672534 0.3686130941 0.06557283551
0.325439 0.268885 0.124731 0.6053224802 0.5471913218 0.5780712366
-0.133417 -0.017196 -0.217626 -0.9342001081 0.2062833756 -0.2910626233
0.322157 0.194123 -0.146446 0.641038537 0.3686290681 0.6731880307
-0.02506 0.015027 -0.26602 0.3339534998 0.5691938996 -0.7513278723
-0.168656 -0.26973 -0.253795 -0.05349623039 -0.7033752203 0.7088029385
0.326649 0.18579 0.060264 0.9047574401 0.07041324675 -0.4200666845
0.160696 0.322656 0.179872 -0.2867203355 0.06986562908 0.9554633498
0.295839 0.058397 0.196235 -0.4945183098 -0.2174895108 0.8415164351
-0.087051 0.336635 0.020811 -0.657163918 0.7463715672 0.105190821
-0.033956 0.368388 -0.056709 -0.6483969688 0.643322289 -0.4070845544
-0.278137 -0.32973 -0.303768 -0.4411036074 -0.6704857349 0.5965538025
0.173973 0.248482 0.482614 -0.1778327823 0.8064585328 0.5639151335
-0.104856 0.180543 0.101249 -0.5791823268 -0.812974453 -0.06016777083
-0.344728 -0.134128 0.034961 -0.6639020443 0.7403452396 -0.1054657102
0.205858 0.122014 -0.085458 0.5956466198 -0.8003505468 -0.06814728677
-0.031004 0.087356 0.112329 -0.2426954061 -0.9670311213 0.07713469118
0.194788 0.120181 0.524534 -0.07540749013 -0.9955123663 0.05717295036
-0.01492 0.15517 -0.142465 0.4083195925 0.6108509302 -0.6783334613
-0.247445 -0.251893 -0.31955 -0.8067134023 0.5767840147 0.1285838038
-0.022862 0.344235 0.149516 -0.2330572456 0.5291205645 0.8159140348
-0.039893 -0.218596 -0.293454 0.7477063537 -0.6050258279 -0.2736402452
0.176411 0.195686 0.18955 0.1576995254 -0.9401991367 -0.3019209206
0.260905 0.260426 -0.012907 0.9764043689 -0.01634478755 -0.2153307348
0.259437 0.042686 0.129615 -0.04926972091 -0.9752200842 0.2156808525
-0.013343 0.20263 0.327493 -0.5108448267 0.03517875448 0.8589529395
0.360084 0.119134 -0.255254 -0.2658674717 -0.8837906122 -0.3850046992
0.086954 0.409067 0.138511 -0.04015327618 0.786103487 0.616789341
-0.14092 -0.333939 -0.355129 0.6521243453 0.3342641592 0.6804419756
-0.256486 -0.241703 0.012098 0.4969285727 -0.8527510762 0.1608656049
0.177626 0.17927 0.162606 0.01178862993 -0.2281006575 0.9735662341
-0.021836 0.281233 0.184496 -0.6889963746 0.3700596988 0.6231692433
-0.13819 0.149466 -0.07114 -0.6417956948 -0.03469255567 -0.7660905123
-0.397715 -0.275212 -0.091397 0.6546421051 0.2421475351 -0.7161062956
0.220657 0.385077 0.09832 0.4563502967 0.8546620607 0.2475825101
0.219326 0.192583 0.484276 0.5378056169 -0.7006596327 -0.4688723683
0.511354 0.146228 -0.128537 -0.3613531888 -0.03118032776 0.9319075346
-0.154215 -0.393185 -0.381395 -0.4373170733 -0.8242262006 -0.359728843
0.171025 0.292842 -0.133346 -0.04658534378 0.3228525519 -0.9453020692
0.354278 0.155904 0.112588 0.8096895218 0.5643063784 0.1611246467
0.218337 0.396391 0.065505 0.7074166536 0.6947591901 0.1298901886
0.310682 0.043607 0.196934 -0.3700745404 -0.1576191634 0.915533185
0.122429 0.126561 0.4175 0.8545843959 -0.2886630893 -0.4316933453
0.036447 0.111709 0.422333 -0.523532331 -0.753747046 0.3972145915
0.076949 0.228936 0.361391 -0.06884106994 0.8653516769 -0.496414572
0.009433 0.109003 0.160873 -0.6682007313 -0.3030490577 0.6794623137
0.063972 0.193583 0.31517 0.8362123966 0.4992369413 -0.2269608825
-0.085928 -0.252436 -0.312595 0.7702733874 -0.6320286393 0.08496322483
-0.44069 -0.300325 -0.01157 -0.8885269761 0.3649211228 0.2781228721
-0.235322 0.013849 0.043544 -0.6832612753 0.6873831153 -0.246289596
-0.133583 -0.076646 -0.212776 -0.9797090888 -0.1673979163 0.1102177873
-0.34972 -0.161229 0.073832 -0.6394796968 0.3157633543 0.7009702921
0.347732 0.193503 0.117033 0.9107962847 0.3212600648 0.2593107224
0.147219 0.207183 0.401734 0.9141391516 -0.3232944012 -0.2446022928
-0.094743 0.090737 0.094936 -0.7837913036 -0.1385475397 0.6053724289
0.375312 0.209324 -0.1958 0.1397409141 0.9831646681 -0.1177273318
-0.140595 -0.368215 -0.321415 0.3850131929 -0.1139531285 0.91584903
0.12924 0.132969 0.423814 0.6947872639 -0.4548771381 -0.5570973754
0.156664 0.186062 0.204431 0.4419370294 -0.89350456 0.07963144779
-0.168163 0.118302 -0.019722 -0.9971324205 0.07066644728 0.02707658149
0.021514 0.376085 0.160765 -0.3397498131 0.5527634621 0.7609353662
0.069485 0.040631 0.06954 0.3866440058 -0.7488692403 0.5382390022
0.383267 0.074689 -0.221284 -0.3231267631 -0.7971231341 -0.5100821257
-0.28409 -0.128968 0.012429 0.02401391231 0.8983652592 -0.4385922551
-0.107174 -0.109122 0.05888 0.7863686085 -0.5960767865 0.1622246504
0.419353 0.303479 0.096595 0.214188233 0.6904115677 0.6909814477
0.03832 0.283507 -0.149848 -0.2869990766 0.1252340376 -0.949709475
0.05489 0.062566 0.142983 -0.05591588095 -0.7808589935 0.6221999526
0.512146 0.042856 -0.211321 -0.2383620441 -0.2433473021 -0.9401944876
-0.259655 -0.111049 0.108604 -0.8406681418 -0.07855837792 0.5358223915
0.248095 0.254691 -0.068744 0.8772910237 0.2881101668 -0.3838658631
-0.139105 -0.042563 -0.17733 -0.9698449373 -0.1021327972 0.2212910652
-0.109019 0.230895 -0.02109 -0.9413504601 0.2796253562 -0.1888622493
0.135033 0.109546 0.429201 0.6838868856 -0.7235119343 0.09396310896
-0.2783 -0.218923 -0.040305 0.4897075295 -0.3877315819 -0.7809295058
-0.207293 -0.197818 -0.330927 -0.7697429061 0.545176208 -0.3320824802
-0.170689 -0.269492 -0.370166 0.27621454 0.1076954678 -0.9550430775
-0.142621 -0.078182 -0.007576 0.2625493407 -0.5490112901 -0.7935077548
0.121295 0.047459 0.026999 -0.2892130315 -0.806204617 0.5161297321
0.261807 0.040328 0.114104 -0.08780210465 -0.9908742905 0.1022681445
-0.14799 -0.339145 -0.434523 0.6161424518 0.2980844975 -0.7290500998
-0.112973 -0.007704 -0.246464 -0.5793989301 0.274964273 -0.7672624588
-0.238444 -0.043622 0.008763 -0.6794570684 0.1787211597 -0.7116158009
-0.01593 -0.047201 0.013181 0.2936148942 -0.776072979 0.5581228137
-0.319592 -0.14006 -0.014256 -0.3027281761 0.7888131142 -0.5349106789
0.099566 0.204249 0.221945 0.340962261 -0.2468543351 0.9070875049
0.025512 -0.09563 -0.273885 0.7714879513 0.200146392 -0.6039434075
0.31583 0.022006 0.170837 -0.07328941673 -0.9722100496 0.2223426402
-0.165896 -0.375409 -0.403777 -0.752897799 -0.6237622499 -0.2099180371
0.274709 0.285766 0.00687 0.8422818184 -0.4144355357 -0.3446804583
-0.224923 -0.214804 0.053911 0.9231359363 -0.3521237969 -0.1543664932
-0.389483 -0.250936 -0.071921 0.2536091208 0.1753409505 -0.9512822032
0.278209 0.186713 -0.005108 0.8738046288 -0.2407103479 -0.4225209057
0.129385 0.433189 0.085065 0.1895127892 0.9340276718 0.3027825654
-0.156764 -0.182212 -0.358427 -0.1951672882 0.5204279423 -0.8313030005
0.150576 0.43359 0.019715 0.3413651884 0.9336582422 -0.1084074005
0.235916 0.161567 0.011202 0.807400763 -0.4937287569 0.3230107129
0.165374 0.251753 0.477154 -0.3154348731 0.8243210912 0.4701017737
0.002898 -0.146151 -0.210195 0.5575340986 -0.798705399 0.2263303399
-0.406636 -0.349117 0.087074 -0.6743043661 0.5113847852 0.5327282548
0.386932 0.154998 -0.115418 -0.04642517492 -0.2366432697 0.9704868197
-0.228698 -0.218856 0.109961 -0.1847504377 -0.9813418984 0.05324788019
-0.211857 -0.186469 0.037512 0.5917623639 -0.5296913385 -0.6076549292
0.381897 0.29011 0.109072 0.0239335876 0.5950863957 0.8033052683
-0.003315 0.149146 0.360388 -0.9448820353 -0.1857256293 -0.2696366012
0.276561 0.201104 0.208092 -0.2494363636 -0.4518868327 0.8564926386
0.207731 0.117652 -0.159426 -0.5003034472 -0.8210192323 -0.2749976218
-0.18242 -0.044046 -0.017782 -0.3014653325 0.08132263273 -0.9500027895
0.254757 0.203567 -0.07751 0.9157215357 0.2860653698 -0.282171607
0.360152 0.048765 0.151903 0.8210911155 0.5426958799 0.1768913269
0.132658 0.173572 0.404543 0.7423326969 -0.3591760695 -0.5656278133
-0.320384 -0.175604 -0.045197 0.1002360955 0.479865104 -0.8715975881
-0.012282 0.219576 0.319187 -0.4548718929 0.8897967339 0.0367879048
-0.004775 -0.054569 -0.050396 0.5610445738 -0.3819531798 -0.7343982458
0.147196 0.2522 0.193044 0.2068942785 0.262157768 0.9425857663
-0.180041 -0.176066 0.118873 0.2889361382 -0.8386904597 0.4616430402
0.243769 0.141292 -0.09417 0.3626269698 -0.5363987088 0.7620880008
-0.081911 -0.054973 -0.06347 -0.5743281245 -0.6181166172 -0.536730051
-0.001194 0.11754 0.237668 -0.3127139211 -0.9474695325 -0.06716801971
-0.067261 -0.240772 -0.293917 0.4049883187 -0.9106348753 0.08202859014
-0.136984 -0.015511 -0.06328 -0.3505623043 -0.8340560198 -0.4259772003
0.04564 0.44036 0.052455 -0.1330358088 0.9837024808 0.1209580898
0.022762 0.382126 -0.087717 -0.3047267199 0.7572532296 -0.5776757002
-0.140086 -0.339825 -0.397203 0.9298455119 0.2193021476 -0.2954553068
0.500036 0.039475 -0.19849 -0.7105939388 -0.7036020756 -0.0004703888553
0.536763 0.012476 -0.176802 -0.6354248524 -0.769513309 -0.06390816718
0.27779 0.043631 0.125999 -0.4471345842 -0.6245785356 0.640290916
0.439187 0.171495 -0.250081 0.3490964472 0.2644271553 -0.8990050554
-0.389985 -0.215606 -0.062227 -0.1844911575 0.3572354317 -0.91561234
0.317015 0.173285 -0.123785 0.5919959545 0.2895694673 0.7521238923
-0.406042 -0.36304 0.044789 -0.5013854504 -0.7257697582 -0.471031934
-0.221965 0.021691 0.085139 -0.3900636435 0.8948307633 0.2170905471
0.015284 -0.110184 -0.17952 0.7081370354 -0.5416586399 0.452932477
-0.015805 -0.059436 -0.099541 0.4917793572 -0.7029879689 0.5137712955
-0.157173 -0.30954 -0.359814 0.8723580837 0.4455443919 0.201200068
0.026085 -0.137772 -0.245917 0.8519039154 -0.5103121996 0.1176490262
-0.062303 0.02774 -0.255069 -0.3554998636 0.7901614904 -0.4992640913
-0.361913 -0.197593 0.069599 -0.7148771286 0.02274736948 0.6988800168
0.444285 0.291136 0.091574 0.5282162428 0.2828055918 0.8006301522
0.100309 0.240912 0.405283 -0.06882529706 0.9942907691 -0.08154165745
0.463266 0.28677 0.05201 0.3269838095 -0.3647063076 -0.8718205094
0.431824 0.307774 0.08345 0.296620369 0.8840713501 0.3611566722
0.258086 0.237451 -0.06638 0.8789101243 0.228154242 -0.418882817
-0.351668 -0.368569 -0.027921 0.1840636432 -0.5976737142 -0.7803247571
-0.146495 0.01731 0.117184 0.1269670278 0.9360307455 0.3282161951
0.148389 0.237538 0.487314 -0.1616411954 0.6783508062 0.7167372108
-0.12191 -0.132654 -0.25406 -0.7621309161 0.5017289519 0.4091754556
